# .PCD v0.7 - Point Cloud Data file format
VERSION 0.7
FIELDS x y z
SIZE 4 4 4
TYPE F F F
COUNT 1 1 1
WIDTH 1538
HEIGHT 1
VIEWPOINT 0 0 0 1 0 0 0
POINTS 1538
DATA ascii
22.809097 0.53762317 -4.2821708
21.606789 -0.43954158 0.52103901
22.44302 0.96364784 -3.7857809
22.383488 1.4842269 -5.6872311
20.912289 1.7875829 -5.3991208
23.52384 4.4771976 -1.6752011
23.406353 3.3522263 -1.188751
22.759739 -1.9830711 1.427779
22.773054 -1.9674938 1.528259
22.525476 0.84938645 -3.784791
27.936045 1.8760349 -1.313431
22.783661 -1.9584424 1.627849
22.293657 1.0132658 -3.4864409
22.044163 1.7442441 -5.5920911
20.789125 2.6529548 -6.3952508
24.402399 6.3953452 -3.0947509
23.338209 2.6830416 -0.588871
24.257816 6.4563899 -2.9920609
24.608662 7.0233269 -3.589361
28.105072 1.7815937 -1.713991
29.451071 2.9697664 -2.2204411
31.716858 5.016777 -1.871341
28.916412 2.9467714 -1.5948009
32.917004 -2.624233 -3.8366611
32.828636 -2.697567 -3.736521
32.769104 -2.7462797 -3.635911
32.720314 -2.786401 -3.5354309
32.689003 -2.8122952 -3.4361911
32.650234 -2.8423259 -3.334801
32.612278 -2.8733397 -3.234091
32.564751 -2.9126761 -3.1330111
32.542255 -2.9315062 -3.034971
32.512257 -2.9556539 -2.9349411
32.474079 -2.9866464 -2.8340809
32.462196 -2.9968643 -2.7348909
32.441685 -3.0136225 -2.6367109
32.435226 -3.017144 -2.5333509
32.415375 -3.0330751 -2.433531
32.39558 -3.0490768 -2.333571
32.365898 -3.0732036 -2.2334709
32.346165 -3.0892053 -2.1336811
34.012135 4.2982783 -2.3916111
25.830265 -0.22210646 -1.692811
29.454388 1.5410502 -2.9420409
37.677032 3.0974486 -1.191361
30.659925 -4.500802 -1.636471
30.602327 -4.5496492 -1.538331
30.555817 -4.5876846 -1.437391
30.510767 -4.6232452 -1.3352309
30.482578 -4.6462898 -1.235351
30.462021 -4.6655865 -1.137291
30.440552 -4.6880865 -1.0376509
30.404114 -4.7209177 -0.94115102
30.367077 -4.7489052 -0.83940101
30.333546 -4.7924623 -0.74507099
30.326319 -4.8100414 -0.645661
30.314419 -4.8309078 -0.546211
22.575539 -1.5918293 0.72548902
22.560486 -1.6056104 0.82574898
22.552191 -1.6131978 0.92560899
22.557402 -1.6072793 1.025279
22.561333 -1.6002362 1.1247489
22.579172 -1.5840933 1.225989
26.718575 -3.51564 -2.313911
26.649988 -3.5894339 -2.2634411
23.962803 4.2794838 -2.108691
33.050144 3.1629622 -3.236491
33.121647 3.2320323 -3.221211
22.796581 -1.9429781 1.728259
22.813042 -1.9265168 1.828269
24.411865 0.31987691 -1.658131
22.59572 -1.5669808 1.325909
22.617987 -1.5444317 1.426429
22.637356 -1.5244982 1.525319
21.042347 1.5367932 -4.6925812
22.823847 -1.9172676 1.927509
22.841002 -1.9005377 2.0272989
22.860453 -1.8779736 2.1278191
22.870934 -1.8686259 2.2276089
22.801474 -0.8096838 -0.76986098
21.713186 1.0308652 -3.087981
22.237017 2.7495666 -7.0423508
21.746952 2.2438011 -6.1958308
22.784178 0.89256215 -5.3863311
22.825085 0.92399311 -5.502831
21.394705 2.0850203 -5.6982608
22.096241 1.2068782 -3.988451
22.315514 1.4193645 -5.2870412
22.774775 0.50612855 -4.0819511
21.636593 -0.40747476 0.421229
22.434294 0.95534635 -3.6860411
22.40671 1.5068829 -5.7882309
20.868448 1.7547734 -5.2947311
20.785858 1.871304 -5.494741
23.626179 3.5646977 -1.578671
22.211498 0.75249147 -1.584341
22.289698 0.63114476 -1.584621
22.496717 0.82416391 -3.3850911
22.358591 0.11413002 -0.87803102
22.227034 -0.018841505 -0.67407101
22.884134 -1.8537271 2.327729
21.759069 1.0828307 -2.6871309
22.063459 1.763541 -5.6905909
24.326986 6.3169622 -2.9894011
22.081831 2.3785684 -6.8007112
24.198767 6.3997431 -2.8974409
24.534727 6.9444418 -3.495621
24.141306 6.5493245 -2.897331
26.977858 0.19518542 -2.371491
28.530458 2.1491408 -1.879741
27.794249 1.3608865 -1.829971
32.340633 4.7450714 -2.1897011
32.827492 -2.5137193 -3.9346011
32.739433 -2.5875342 -3.834681
32.679344 -2.6392801 -3.737031
32.630638 -2.6781003 -3.6350009
32.60009 -2.7036977 -3.5361209
32.561985 -2.7344642 -3.434711
32.532444 -2.7583361 -3.334851
32.493679 -2.7889676 -3.2339311
32.4818 -2.7989521 -3.1353109
32.441971 -2.832094 -3.0357211
32.402836 -2.8640697 -2.935401
32.373077 -2.8886273 -2.835331
32.343674 -2.9128387 -2.735671
32.313976 -2.9368801 -2.6353109
32.295994 -2.9504213 -2.5341311
32.276302 -2.9664514 -2.4342909
32.266178 -2.9742014 -2.3345411
32.246426 -2.9902737 -2.234441
22.658813 -1.5024714 1.625639
33.462177 4.1416969 -2.6840911
33.358917 3.0498888 -3.3433909
29.304197 1.3962345 -2.945071
33.258514 2.7367604 -3.585041
32.503422 2.4697995 -3.751091
32.978973 2.058228 -4.0989008
32.459068 5.4915566 -1.263411
30.398897 -4.5447063 -1.340861
30.370747 -4.5699291 -1.243441
30.329149 -4.6183586 -1.1521209
30.28554 -4.6880865 -1.068141
30.284876 -4.6980286 -0.971811
22.675835 -1.4848862 1.725529
28.868359 -0.86106938 -3.1042111
28.729383 -1.0037069 -3.0983009
22.68268 -1.4774754 1.825459
22.681074 -1.4780905 1.925109
23.396629 -0.92446136 -1.301941
31.500994 3.0089612 -2.9825211
33.265579 3.3748326 -3.165431
25.162207 4.6481762 -2.402041
30.296436 1.8083647 -3.168561
29.348618 -0.77437097 -3.229171
29.279858 -0.84566152 -3.2241809
29.697865 -0.41670933 -3.2922111
24.954409 3.5878906 -1.931671
23.74715 -0.14048529 -1.625301
24.553097 0.45813727 -1.602541
22.892344 -1.8450937 2.4275889
22.893234 -1.8442025 2.527559
22.892513 -1.8437922 2.6275289
21.427128 1.915067 -5.3996511
21.242218 1.7401993 -5.1914411
21.039024 1.5316315 -4.893291
21.05649 1.5526326 -4.592731
22.674131 -1.4840443 2.0251589
22.393663 -1.3802695 1.324049
22.927416 -2.3940911 1.430539
23.788353 4.3325806 -1.979751
23.321083 2.462976 -0.588121
23.406036 2.5395842 -0.88457102
23.588236 2.7144306 -1.171361
21.468882 1.961206 -5.497231
22.299419 1.5994217 -5.7885709
22.887068 -1.8495197 2.7275791
23.068583 -2.2512271 2.529829
21.896336 2.3934674 -6.5982509
21.672556 -0.3766017 0.32359901
21.864422 -0.18968558 -0.070701003
22.400658 0.9245379 -3.385751
22.033165 1.3430674 -4.3877711
20.860361 1.7485223 -5.1940012
20.773922 1.85852 -5.393991
23.697166 3.6362498 -1.678031
22.88625 -1.8494914 2.8275089
22.285109 0.62641454 -1.684311
22.472654 0.22989058 -1.082351
22.515137 0.27025199 -1.282691
22.412678 0.17132783 -0.98232102
22.888052 -1.8475471 2.9270189
22.89167 -1.8449168 3.0260291
22.088301 1.7880993 -5.7913008
24.24757 6.2355676 -2.889241
24.07645 6.2751656 -2.695251
24.136427 6.3368392 -2.797461
24.038254 6.4493823 -2.7004311
24.086117 6.4954081 -2.797761
26.904955 0.1118176 -2.362891
30.564135 4.2922754 -2.194581
27.923401 -0.15016556 -2.8163409
32.681522 4.9156885 -2.059721
32.747875 -2.3951304 -4.0322409
32.649326 -2.4800894 -3.935601
32.589325 -2.5316939 -3.838011
32.530159 -2.5806751 -3.7373109
32.499619 -2.6063926 -3.638011
32.460884 -2.63817 -3.5367711
32.42186 -2.6686108 -3.436131
32.392776 -2.6924336 -3.3356609
32.372822 -2.7084563 -3.235831
32.352692 -2.7243876 -3.135711
32.324497 -2.7464848 -3.035141
32.303074 -2.7807369 -2.936681
32.265255 -2.7950914 -2.835181
32.23444 -2.8212259 -2.736181
32.194748 -2.8537741 -2.6361611
32.176479 -2.8675203 -2.534941
32.156689 -2.8834655 -2.435241
32.126972 -2.9076343 -2.334861
32.117088 -2.9155397 -2.2352009
33.550156 4.1750016 -2.6420009
26.606995 0.59549272 -1.942641
33.340576 -5.0950623 -3.8328609
29.379129 1.4718739 -2.945941
29.981216 2.0545864 -2.932961
30.396252 2.6080742 -3.0387909
30.480038 3.133801 -2.7731409
32.232052 1.9196421 -4.149941
33.120113 3.0266955 -3.3065209
32.337593 2.8558092 -3.164561
29.585852 -5.0385075 -1.136611
29.511791 -5.1015816 -1.0365911
29.433966 -5.145196 -0.928541
28.939619 -0.78989196 -3.1126111
28.79911 -0.93245178 -3.100821
28.659443 -1.0750753 -3.0870609
28.590139 -1.1467547 -3.073061
23.53639 0.061280727 -1.676681
34.42923 -3.9571366 4.4423289
29.628143 -0.48819783 -3.280091
29.558722 -0.5596863 -3.266711
29.489439 -0.63099098 -3.2623811
29.41865 -0.70284009 -3.2419109
27.916994 -2.4537497 -2.9284611
28.051077 -2.3054836 -3.0587211
28.120445 -2.232708 -3.084971
27.983555 -2.3789449 -3.0055311
25.133392 -1.2333612 -1.7795711
22.772072 1.6550217 -6.4124608
26.855677 -3.7922392 -2.2860711
29.218504 -0.50330162 -3.175951
22.260345 1.5698225 -5.591351
22.282677 1.5833845 -5.6883111
22.323166 1.6227422 -5.8895111
22.341026 1.640038 -5.989141
22.382372 1.6801095 -6.1900811
22.410847 -1.3810472 0.62419897
22.062759 -0.9402864 0.32085899
22.044458 -0.95858645 0.41918901
22.658787 -1.4989643 2.125129
23.555426 4.1077132 -1.689141
23.421211 3.9732141 -1.391831
21.734556 1.0554869 -2.887331
22.315529 2.6425312 -7.0143709
22.097271 -0.90393424 0.223289
21.933126 0.85765243 -2.5863111
23.455349 4.0096164 -1.491411
23.409294 3.9651184 -1.194281
22.670637 1.1720326 -5.7915511
21.907125 -0.1479733 -0.174721
22.001404 -0.057654619 -0.37256101
22.390594 0.9149003 -3.2860811
22.437901 -1.3266993 2.5237391
23.491646 4.4451447 -1.592201
25.091579 5.4204216 -2.7888811
25.888512 -4.4593801 -0.45108101
23.125725 0.4536047 -3.281661
22.277988 0.61830401 -1.784301
22.498888 0.25442696 -1.182601
22.299866 0.055404425 -0.77733099
23.010906 -2.3114512 1.9285589
22.601364 1.4970398 -6.2887211
22.24085 1.9381051 -6.392211
24.174377 6.1626573 -2.791451
37.675529 3.5570045 -0.91319102
21.584131 1.0964072 -3.588891
24.455297 6.8645883 -3.3949311
26.339384 -0.59856999 -2.2453811
26.534637 0.036079288 -2.177201
27.854176 -0.23551327 -2.8023009
32.849419 5.0099039 -2.0040009
32.587975 -2.3476553 -4.0359111
32.499062 -2.4227784 -3.9390309
32.438454 -2.4766669 -3.8414409
32.381721 -2.5202882 -3.7371609
32.352394 -2.5435097 -3.6361811
32.323223 -2.5675161 -3.535851
32.293915 -2.5912535 -3.435751
32.282269 -2.6008489 -3.3368411
32.243286 -2.6336799 -3.2366309
32.215012 -2.6557629 -3.1356111
32.185333 -2.6797552 -3.036061
32.165581 -2.6958702 -2.935981
32.135365 -2.7223935 -2.8368411
32.103329 -2.749186 -2.7382309
32.065125 -2.7814653 -2.638001
32.04705 -2.7927222 -2.5357809
32.02734 -2.8087809 -2.4358809
31.966942 -2.8786855 -2.3540809
32.940083 3.9114981 -2.9025011
29.84343 1.400753 -3.146121
33.411461 4.7860689 -2.2088311
33.462181 -4.8676138 -3.9041409
29.914669 1.9610291 -2.9112411
32.211361 2.4647365 -3.568511
30.186857 2.8144574 -2.7520211
31.825888 1.6421027 -4.248621
35.131416 2.9406617 -2.954241
37.529873 3.8598509 -0.63588101
29.427996 -5.0192175 -1.2537611
29.332027 -5.0896034 -1.147091
29.26759 -5.1413703 -1.044981
29.202227 -5.1907692 -0.94186097
29.155155 -5.2218885 -0.83785099
29.099314 -5.2645626 -0.73649102
23.832668 2.0199664 -1.044171
27.89403 -5.3885822 1.020009
27.574862 -5.2555113 1.246809
27.094269 -3.3243325 -2.5043809
27.025759 -3.3971574 -2.465781
26.958008 -3.4696004 -2.4253409
24.751547 -1.4158015 -1.692781
25.063311 -1.3054223 -1.7599109
31.087202 2.9968061 -2.9216211
27.961634 0.039812982 -2.7746711
23.361954 -1.1726842 -1.180611
31.158253 3.0671492 -2.909471
24.891214 -2.1205606 -1.440401
26.921535 -3.7189829 -2.3527009
23.223051 -0.89496088 -1.181621
23.432467 -0.67592764 -1.4078211
22.73555 0.65923834 -4.483181
23.332602 2.2690096 -0.586191
22.308372 0.63256645 -0.88397098
22.108034 0.21500564 -0.46779099
22.49917 1.3995159 -5.7870712
22.43095 1.7243037 -6.3957109
22.460091 1.7523122 -6.4941311
22.507927 1.8076434 -6.5812011
23.514668 0.2109611 -1.867501
23.705473 4.2516804 -1.882651
23.500916 4.0541925 -1.5904011
22.644552 -1.5122089 2.2256889
22.636497 -1.5192728 2.325639
22.10083 2.8071246 -7.0554609
21.822731 2.5208242 -6.6981611
21.655691 2.3520875 -6.296371
21.861523 0.98955631 -2.485471
21.811184 0.93059063 -2.9875209
22.019165 1.1288137 -3.6895709
22.584129 1.0937271 -5.1859212
21.947283 -0.10583663 -0.273561
22.37443 0.89916015 -3.1855011
21.922836 0.84425306 -2.9866409
23.471903 4.4269581 -1.493791
21.69278 1.9895184 -5.6965609
24.10499 -3.1539903 -0.061400998
22.622654 -1.532552 2.4257891
22.27866 0.61770296 -1.884231
22.156372 -0.085967064 -0.57550102
22.80793 0.35430551 -2.5816009
22.724995 0.64882278 -4.3835912
31.462894 -5.0497646 2.6687391
22.572752 1.4653187 -6.1931911
23.381132 2.919569 -0.987481
23.423967 2.9621224 -1.0863611
21.601364 1.1120834 -3.788861
21.587667 1.0942862 -3.690501
23.991364 6.4046159 -2.6012909
22.620222 -1.5339944 2.5252891
28.028738 1.7136053 -1.720431
29.02062 2.3010201 -2.232861
27.997478 -0.067320883 -2.8217709
32.545673 -2.2015953 -4.139791
32.438122 -2.2909596 -4.0391312
32.368919 -2.3490057 -3.9400809
32.301094 -2.4053481 -3.838891
32.241688 -2.455178 -3.739291
32.204277 -2.4841764 -3.636791
32.194016 -2.4920039 -3.5366609
32.173946 -2.5079141 -3.436691
32.154362 -2.5241916 -3.336401
32.115002 -2.556478 -3.2365911
32.084625 -2.5819764 -3.1372211
32.054771 -2.6069088 -3.0371511
32.033474 -2.6244171 -2.9378309
31.995417 -2.6560812 -2.837641
31.964935 -2.6814024 -2.739301
31.926348 -2.7142901 -2.6386411
31.908047 -2.7262402 -2.5366111
31.888126 -2.7422843 -2.436471
31.868607 -2.7583995 -2.3367209
29.924351 1.4589055 -3.128001
33.58717 4.8541565 -2.126601
33.498997 4.8197203 -2.167181
34.771862 -3.7863417 -3.6577611
31.952023 2.5219698 -3.204541
34.844166 4.4881721 -1.903301
35.026905 4.5403776 -1.804691
32.068962 1.8115256 -4.1928811
32.161835 3.8914094 -2.677861
32.07365 3.854279 -2.7132211
29.197933 -5.0275898 -1.251201
29.11404 -5.0948925 -1.148851
29.049078 -5.1496153 -1.047791
28.984428 -5.1992331 -0.944951
28.920082 -5.2498479 -0.84319103
28.874254 -5.2959585 -0.74759102
25.877098 -2.961134 -1.847561
28.322861 -5.1365552 1.932379
25.807455 -3.0368581 -1.761331
23.639601 -0.88259387 -1.462811
23.511423 0.74313641 -3.3382411
28.677135 -5.4476252 -0.13859101
28.650013 -5.4611311 -0.037461001
28.64917 -5.4643764 0.049809001
24.687943 -2.3340154 -1.244411
29.761299 -0.76018643 -3.313201
29.829041 -0.68905151 -3.3190911
29.691282 -0.83192945 -3.301511
29.621546 -0.90343213 -3.2887311
24.600904 4.0762682 -2.267791
24.531496 4.0082731 -2.2478909
27.104536 -1.646863 -2.7485709
27.952272 -2.6280868 -2.875751
32.574165 4.3054347 -2.478121
22.593224 0.71886158 -3.8838711
22.602316 0.72696519 -3.9836709
22.6173 0.7416656 -4.0840511
27.988037 0.11670369 -2.7654209
27.157845 -0.22021139 -2.528111
26.916849 1.0177771 -1.829121
23.430325 3.7829249 -1.390731
33.439987 5.3354487 -1.399371
23.340899 2.4796777 -0.68765098
23.409563 3.9651041 -1.293781
21.722103 1.0406306 -2.988061
21.860603 3.1908503 -7.0421009
22.62015 -1.5336411 2.6252389
22.621847 -1.5319436 2.7247491
21.486269 2.1775734 -5.8991609
21.295195 1.9805596 -5.5002108
20.949476 1.6399322 -5.0935411
22.201063 1.3100033 -4.587501
22.574287 1.0850158 -5.0859809
22.3564 0.88084579 -3.0863111
23.326153 2.2690659 -0.48728099
23.470325 4.4275022 -1.395061
21.592659 1.8862879 -5.3967309
24.013758 -3.2358875 0.33847901
21.369144 1.8541141 -5.300571
22.27224 0.61043406 -1.984481
22.081625 -0.15986705 -0.47426099
22.84313 0.38993001 -2.7810211
22.825424 0.37137532 -2.6812611
22.708921 0.63416433 -4.283411
31.508247 4.5695882 -2.288301
22.548847 1.4445229 -6.0890312
21.639591 1.1563911 -3.088691
21.627895 1.1410182 -3.8877311
21.940536 1.446022 -4.5903211
23.950197 6.3599119 -2.500011
22.629618 -1.52389 2.824419
27.051058 0.27177942 -2.374831
28.886 2.1085598 -2.1869209
31.210472 4.7433105 -2.0482309
32.396561 -2.1424952 -4.140131
32.308678 -2.2160487 -4.039701
32.231216 -2.2797377 -3.937921
32.171345 -2.3308403 -3.839591
32.103859 -2.3858674 -3.738101
32.071953 -2.4149153 -3.6407111
32.045055 -2.4335687 -3.5373609
32.035038 -2.4414246 -3.4374311
32.015293 -2.4575891 -3.3370509
31.995445 -2.4735487 -3.2373509
31.965816 -2.4977176 -3.137481
31.925322 -2.5322738 -3.038101
31.895872 -2.5576801 -2.938621
31.866074 -2.5821743 -2.838521
31.835068 -2.6081605 -2.739701
31.805151 -2.6330578 -2.639801
31.778683 -2.6516051 -2.537411
31.74313 -2.6926739 -2.4485109
32.091557 3.1704504 -2.9848111
32.621639 3.8289437 -2.8808911
35.60104 -3.0778985 -3.407191
34.571815 2.9779475 -3.1932809
34.106434 4.3191805 -2.337451
34.656055 4.4444942 -2.011281
34.935574 4.514215 -1.853911
32.264294 2.7788758 -3.162071
36.708679 3.3242745 -0.84969097
30.55381 2.7342362 -3.015161
29.064268 -4.9579186 -1.348861
28.98978 -5.0250373 -1.251721
28.905991 -5.0899358 -1.147981
28.832245 -5.148067 -1.045871
28.767807 -5.203115 -0.946271
28.684729 -5.2727156 -0.84530097
28.620192 -5.3304224 -0.74941099
28.57201 -5.3596544 -0.64128101
28.544884 -5.3792272 -0.53965098
25.698715 -0.66860187 -1.794101
28.488501 -5.4283285 -0.340051
28.470461 -5.4399323 -0.23876099
28.469421 -5.4433336 -0.13925099
28.478119 -5.4360499 -0.039081
28.484413 -5.4347348 0.072889
29.343313 -1.191451 -3.2251711
29.413021 -1.118732 -3.2472711
28.102207 0.18250704 -2.799011
27.941978 -0.78566355 -2.972141
24.481771 0.38751841 -1.635951
25.714407 -1.6746806 -1.869961
27.729774 -0.99899769 -2.9268711
27.801363 -0.92840004 -2.9364109
25.516289 -1.4722927 -1.747241
24.057846 -0.45048785 -1.691431
27.844133 -0.051099777 -2.7473309
22.448288 -1.3194232 2.1238589
22.425228 -1.3543615 0.526609
23.135836 -0.48606944 -1.367121
22.627625 0.75057554 -4.1839609
22.642982 0.76565099 -4.2844009
21.776474 1.0900505 -3.6881509
24.050282 -3.1969614 1.236789
21.81547 1.5169659 -4.6920309
23.457684 2.5858572 -0.97583097
23.073582 -2.2443893 2.6297791
21.69742 1.0131171 -3.288471
21.780701 2.4785111 -6.5978212
21.612799 2.3076389 -6.1979809
22.64468 -1.5082631 2.9241691
22.666325 -1.4856286 3.0244291
23.276005 -1.3149185 -1.0642411
22.35635 -1.4178665 1.123289
22.416525 1.5159905 -5.8879509
22.432711 1.5317516 -5.9883609
21.918919 2.0162544 -5.995841
23.198967 -1.3887055 -0.96363097
21.782745 3.0718369 -7.0511112
23.343555 -2.0082159 -0.76688099
31.903847 1.7079982 -4.238471
22.272572 0.60906911 -2.084461
22.034708 -0.20225811 -0.37768099
22.886007 0.42757607 -2.981581
22.86051 0.40830064 -2.880631
22.693548 0.62020612 -4.1825109
23.136204 -1.4465182 -0.865771
22.482752 1.3835211 -5.6870408
21.622959 1.1389115 -3.188741
21.678001 1.1882958 -3.9885809
21.965687 1.4701838 -4.6905308
21.990246 1.4941761 -4.7910709
24.381956 7.0062075 -3.3882611
27.205357 0.40769243 -2.3628111
27.987551 1.051011 -2.259371
28.659245 1.8898659 -2.1912811
28.384563 1.9891012 -1.8672709
32.066841 5.4931898 -1.166291
32.265743 -2.0710351 -4.1445012
32.187706 -2.1349859 -4.0427308
32.109447 -2.2000396 -3.941891
32.040398 -2.258383 -3.842561
31.972153 -2.3150861 -3.741791
31.913719 -2.3633955 -3.640651
31.893206 -2.3805287 -3.540591
31.876474 -2.3912625 -3.4381909
31.856564 -2.4073138 -3.3380411
31.856245 -2.4069674 -3.2381411
31.836578 -2.4231813 -3.1379609
31.797249 -2.4556518 -3.0379109
31.76775 -2.4797921 -2.9383111
31.746134 -2.4994569 -2.8396809
31.697109 -2.5399671 -2.739671
31.664362 -2.5701675 -2.6425309
31.624123 -2.607199 -2.5467811
32.234097 3.3394349 -3.0052609
32.162067 3.2611864 -2.9978211
32.531525 3.6429465 -3.0092809
33.732086 4.2292156 -2.546751
33.641037 4.2016525 -2.5940111
34.19585 4.3417587 -2.284061
34.749973 4.4646325 -1.956221
36.821102 3.2817137 -0.73350102
30.41147 3.0284634 -2.7449009
30.474367 2.6741674 -3.0294909
28.954746 -4.8938336 -1.459571
28.871498 -4.966588 -1.3620009
28.772806 -5.0287356 -1.249311
28.71797 -5.0726256 -1.1490411
28.62565 -5.1426153 -1.044181
28.54311 -5.2138844 -0.94629103
28.477152 -5.2622504 -0.84152102
28.43992 -5.2932148 -0.74103099
28.402573 -5.3236198 -0.64056098
28.374775 -5.3449817 -0.54017103
28.355961 -5.3612661 -0.44014099
28.336571 -5.3811078 -0.34129101
28.308775 -5.4031343 -0.24045099
25.777657 -2.0204203 -1.9078211
28.298931 -5.41466 -0.040821001
27.870581 -0.85649443 -2.951221
24.060999 -0.030565262 -1.711121
24.130686 0.040109873 -1.7118109
23.572977 -0.5304687 -1.5107009
28.818932 -4.9203148 2.208569
21.507532 3.0441113 -6.9749012
29.368431 -4.6787176 2.339169
24.950394 6.9598851 -3.756021
28.223186 -0.50134307 -2.985661
26.81933 -0.51629829 -2.5182409
25.834225 -0.52573812 -1.806221
25.593519 -0.56633306 -1.778531
23.060862 -1.5191736 -0.76356101
22.991119 -1.5850973 -0.66478097
22.927721 -1.643971 -0.56827098
22.442913 -1.3266358 1.7232291
22.490686 0.43671894 -1.585561
22.652098 0.77391696 -4.384201
22.66213 0.78281951 -4.4839611
22.677835 0.79795885 -4.584341
21.975176 2.4731581 -6.7976508
21.627146 2.1214504 -5.897881
21.552172 2.0456274 -5.6972508
23.385756 3.5393765 -1.1911809
22.442915 -1.32409 2.223959
21.436991 2.1295681 -5.797061
20.964594 1.6544845 -4.7940211
20.950027 1.626483 -5.0018511
22.266407 -0.74116492 -0.076030999
23.537212 4.2904582 -1.688591
21.705132 2.6030538 -6.7003312
21.892332 1.9888182 -5.896841
21.727669 2.0238411 -5.795671
33.681301 2.6586323 -3.6188209
23.715805 3.8540106 -1.776431
22.555386 -1.2300022 0.125129
22.28071 0.61508679 -2.1848111
21.986145 -0.25195336 -0.27581099
22.903765 0.45056415 -3.1804709
22.894825 0.4365356 -3.081151
22.648788 0.57898188 -3.7827411
22.874241 -1.6936312 -0.47161099
22.404568 1.3090131 -5.1869011
23.472569 3.0069036 -1.180181
24.025114 6.2287793 -2.599961
24.387861 6.8029499 -3.3041711
23.924616 6.3330555 -2.3998511
24.318394 6.9327464 -3.2936611
27.838139 0.9049933 -2.2618511
28.81152 2.0325248 -2.1853111
28.832211 2.4375978 -1.871421
31.976791 5.4636683 -1.214211
32.194435 -1.9510038 -4.2483311
32.107239 -2.0222447 -4.1453409
32.048378 -2.0701442 -4.0440512
31.980928 -2.123764 -3.9413209
31.912275 -2.1814992 -3.841661
31.843374 -2.2393124 -3.7418711
31.794571 -2.2798295 -3.641201
31.772911 -2.2984478 -3.5420511
31.74291 -2.321068 -3.441011
31.715664 -2.3444097 -3.3402009
31.707758 -2.3488221 -3.2390611
31.687876 -2.3648875 -3.138871
31.677559 -2.3726726 -3.038831
31.63851 -2.4052844 -2.9389009
31.607603 -2.4320626 -2.8398809
31.585657 -2.4523282 -2.7419209
31.545168 -2.4870896 -2.643631
31.505329 -2.5220206 -2.550601
31.827763 5.4727478 -1.133741
32.304466 3.4300294 -3.019311
32.857231 3.8618805 -2.9279311
33.024872 3.9559827 -2.8724511
33.826885 4.2513552 -2.494421
34.661053 3.0009851 -3.1407111
33.275452 5.393085 -1.3679709
30.248482 2.4552119 -3.0348511
30.320684 2.539011 -3.043021
34.120655 3.6123354 -2.992661
28.706657 -4.9368749 -1.468801
28.595097 -5.0197554 -1.3554111
28.510986 -5.0567298 -1.241541
28.464537 -5.1043673 -1.145851
28.382244 -5.1708217 -1.043391
28.316616 -5.2200432 -0.94123101
28.279762 -5.2502789 -0.840711
28.26055 -5.2672567 -0.74142098
28.232038 -5.2945228 -0.642591
28.203728 -5.3197103 -0.543401
28.167206 -5.3481145 -0.44272101
28.139437 -5.3731952 -0.343151
28.081913 -0.64304 -2.9865911
28.152222 -0.57174248 -2.988121
28.020607 -5.4625807 -0.039820999
28.011005 -5.4726501 0.059919
27.992338 -5.4842749 0.160679
27.982819 -5.493156 0.26026899
27.982006 -5.4949732 0.36026901
27.981667 -5.4952707 0.46031901
27.981489 -5.4944711 0.560619
27.990047 -5.4875979 0.660779
27.432838 -3.8038568 -2.5178111
28.119808 -2.6550486 -2.9657409
28.186495 -2.5811775 -3.0318611
28.255232 -2.5088332 -3.0709109
28.324755 -2.4358881 -3.0970509
28.39538 -2.3629429 -3.1198609
28.46641 -2.2909384 -3.121161
28.536922 -2.2206519 -3.110991
22.841658 -1.7255075 -0.371961
22.422138 -0.016493797 -0.87735099
22.457579 0.40545082 -1.4848011
21.633863 -0.78313255 0.81906903
21.631813 -0.78376842 0.91882902
22.681356 0.800349 -4.6835208
22.742098 0.8571291 -5.1834311
22.757244 0.86845756 -5.2860112
21.149801 1.6472151 -5.0910511
29.248123 2.9942253 -1.988811
21.846985 0.97275567 -2.5861411
21.185713 1.8780077 -5.394691
20.950863 1.6425908 -4.8935308
21.286325 1.3907335 -3.991081
23.48082 4.2363291 -1.591181
21.656822 2.5546026 -6.5974908
20.864395 1.7524185 -5.0939012
21.62632 1.9209363 -5.4961209
30.404774 3.2241411 -2.698081
21.386553 1.2936757 -3.790921
28.25835 -4.378643 2.942229
22.318504 0.65500283 -2.484551
21.943773 -0.29361606 -0.17537101
22.912298 0.4598062 -3.2804711
26.173954 -1.3015404 -2.2394209
22.63237 0.56341171 -3.6827309
22.351555 0.49543738 -1.083391
22.393543 1.2988381 -5.0877609
21.612169 1.1274137 -3.288481
23.966419 6.1662636 -2.498651
22.810171 -1.756005 -0.271871
23.894548 6.2966261 -2.2991011
24.258036 6.8773375 -3.199491
27.127186 0.34069395 -2.3712909
29.091782 2.3919826 -2.249491
28.981636 2.5940948 -1.880451
31.714117 5.3576875 -1.335301
32.007687 -1.9232428 -4.2462811
31.947306 -1.9765657 -4.148941
31.881361 -2.0269682 -4.0423908
31.849731 -2.0541565 -3.9459009
31.781906 -2.1085048 -3.8435011
31.724277 -2.155612 -3.741781
31.685045 -2.1879411 -3.641331
31.655886 -2.2117 -3.540911
31.626152 -2.2354517 -3.4402211
31.59726 -2.259465 -3.340251
31.578167 -2.274116 -3.2394309
31.558567 -2.2902522 -3.139631
31.538845 -2.3063674 -3.039721
31.499615 -2.338979 -2.939451
31.486145 -2.3507242 -2.8417809
31.447147 -2.3850965 -2.742451
31.400167 -2.4354568 -2.653471
31.458195 2.6782265 -3.090271
30.39872 4.6830721 -1.620941
32.610237 3.7079432 -2.9987111
26.533251 0.51298058 -1.934011
26.830511 0.81717086 -1.942551
31.881205 -6.3895626 -1.879091
29.609377 1.6755347 -2.9262111
29.68819 1.7366712 -2.913981
32.729782 1.9271094 -4.204421
30.034624 0.044656623 -3.4004309
28.401136 -5.0002389 -1.559201
28.29804 -5.079195 -1.453261
28.232811 -5.1280627 -1.348161
28.19467 -5.1527691 -1.243991
28.132254 -5.2050033 -1.1418411
28.110855 -5.2192302 -1.041571
28.092188 -5.2262869 -0.93958098
28.073294 -5.2480803 -0.841241
28.04438 -5.2797794 -0.74388099
27.999187 -5.3139114 -0.642941
27.953568 -5.3475842 -0.54117101
27.907335 -5.3859091 -0.441111
27.861105 -5.422184 -0.34031099
27.852386 -5.4394302 -0.23233099
27.832794 -5.4477386 -0.140701
27.823034 -5.4571996 -0.040791001
27.81356 -5.4633937 0.059388999
27.804953 -5.4666114 0.159619
27.803194 -5.471158 0.259399
27.802925 -5.4706488 0.35950899
27.802988 -5.468153 0.45987901
27.803413 -5.4655228 0.55966902
27.811741 -5.4583101 0.65965903
27.829165 -5.4444361 0.76026899
27.860859 -5.4332924 0.85579902
27.874159 -5.4048452 0.96060902
27.910038 -5.3751192 1.0611089
33.099648 2.2668951 -3.981041
29.653494 -1.0764753 -3.287231
29.584494 -1.1476244 -3.272141
29.515409 -1.2200322 -3.2452409
29.446424 -1.2923408 -3.2208309
22.793892 -1.7715755 -0.17185099
22.939848 0.29176903 -2.280261
21.723877 -0.88460183 1.3189189
21.713951 -0.89523673 1.1193891
21.632696 -0.78302622 1.018889
21.683142 -0.72607541 1.419499
21.704277 -0.70847583 1.5176589
37.519524 3.2765658 -1.028621
22.777948 -1.7868135 -0.072051004
27.230358 -2.7592127 -2.664341
21.801371 0.92148328 -3.0872109
22.767744 -1.7951787 0.027569
21.308764 1.4158566 -3.8909111
23.453058 4.209558 -1.492721
21.614674 2.5118864 -6.497221
21.359653 1.6488981 -4.9973211
21.248886 1.5477464 -4.8910909
29.521866 2.74386 -2.3967609
21.369293 1.2758498 -3.8906209
22.751608 -1.8104663 0.127289
22.381834 0.69966388 -2.5856509
21.895344 -0.34345984 -0.073160999
21.957054 -0.47153807 -0.069811001
22.736206 -1.8257253 0.22751901
22.733173 -1.826355 0.32701901
22.623962 0.55641842 -3.5824611
22.361357 0.50962186 -1.183841
22.37747 1.2834723 -4.9872608
21.597935 1.1119072 -3.388751
24.32041 6.7301245 -3.195591
22.725622 -1.8336239 0.42728901
22.748894 0.30021906 -2.1807511
21.826571 0.94852281 -2.7870009
26.260406 -0.33997428 -2.0944409
31.518543 1.5222129 -4.1860409
28.455584 2.0734165 -1.877991
31.918186 -1.8127713 -4.3451109
31.839033 -1.8821669 -4.2476511
31.77062 -1.9384172 -4.1460109
31.712971 -1.9840186 -4.0430708
31.665495 -2.0209155 -3.940521
31.635492 -2.0459681 -3.8409109
31.577326 -2.0943768 -3.740191
31.557428 -2.1104705 -3.6401811
31.52787 -2.134696 -3.5404711
31.498528 -2.1591759 -3.440351
31.477581 -2.1768537 -3.340951
31.439411 -2.2078674 -3.240221
31.419458 -2.2238479 -3.1404309
31.399666 -2.2400053 -3.0403111
31.370243 -2.2643652 -2.9404509
31.330467 -2.2984691 -2.841161
31.307749 -2.3253179 -2.7464011
31.615368 2.8044305 -3.0655711
31.535713 2.7447155 -3.0800011
32.691422 3.762115 -2.9782209
29.460863 1.2126415 -3.090641
29.084116 1.130617 -2.9072509
29.160563 1.2282755 -2.9261911
29.234364 1.3111273 -2.9330909
31.077076 5.1963892 -1.295821
31.162239 5.239975 -1.263841
31.740887 4.2922611 -2.500001
28.228157 -4.963222 -1.658651
28.135534 -5.0379419 -1.554841
28.060997 -5.1023378 -1.4549609
27.99691 -5.1529884 -1.350871
27.933788 -5.2079659 -1.254411
27.895605 -5.2245121 -1.142151
27.8862 -5.2297444 -1.041481
27.904005 -5.2177944 -0.94204098
27.885918 -5.2232113 -0.84017098
27.830261 -5.2785277 -0.74289101
27.765766 -5.336617 -0.644301
27.720858 -5.3740582 -0.543791
27.692793 -5.386694 -0.44001099
27.673693 -5.4060192 -0.341241
27.654694 -5.4238882 -0.24157099
27.645784 -5.4279184 -0.140991
27.644461 -5.4307117 -0.041260999
27.653542 -5.4211087 0.058899
27.652552 -5.421958 0.158839
27.652721 -5.4205718 0.25898901
27.652805 -5.4184928 0.359079
27.660336 -5.4139175 0.45910901
27.66861 -5.4066486 0.55932897
27.677456 -5.398736 0.65953898
27.679585 -5.3912764 0.75852901
27.703802 -5.3761511 0.860259
27.731449 -5.3509359 0.96039897
27.759106 -5.3251333 1.0599591
27.793818 -5.2992601 1.161429
33.172176 2.3390415 -3.960011
29.832914 1.1413368 -3.1752911
29.905067 1.2106616 -3.180371
29.974932 1.2823622 -3.171021
29.811207 -3.9703803 2.876579
22.716436 -1.8413951 0.52689898
23.009256 0.35792589 -2.680481
22.992052 0.34086347 -2.580591
21.714615 -0.89499617 1.019639
21.749914 -0.8628087 0.62071902
21.772491 -0.83980656 0.52002901
22.701609 -1.8559406 0.62729901
22.703426 -1.8503048 0.72633898
23.385126 3.7387166 -1.192531
22.697422 -1.856591 0.82679898
22.044834 1.1557548 -3.789041
22.217997 1.3255239 -4.6877708
26.839033 0.95084929 -1.836681
21.572273 2.4682159 -6.3981309
22.699247 -1.8553321 0.92685902
21.853008 2.9513249 -7.049171
22.703907 -1.8482683 1.026809
21.449486 2.7480531 -6.6971712
21.361782 1.2674918 -3.990521
21.962399 0.89159393 -2.2850111
22.416992 0.74231672 -2.6879809
21.842255 -0.39442849 0.026188999
22.702436 -1.8481834 1.126999
22.95191 0.51893473 -4.1729012
22.615484 0.54878831 -3.482621
22.359816 0.50822186 -1.2838809
22.361774 1.2683401 -4.8868408
21.745785 1.2494323 -4.0914512
24.255079 6.6655025 -3.098551
22.162807 1.8613338 -6.092741
26.053719 -0.30567932 -1.867581
28.734213 1.9594594 -2.1867411
32.538673 -4.2158175 -2.5333209
28.315916 1.8966966 -1.8483011
33.979183 5.0283804 -1.759621
31.74955 -1.7715825 -4.3466311
31.672009 -1.8344584 -4.243721
31.621323 -1.8800809 -4.146781
31.562788 -1.9288571 -4.0457911
31.524702 -1.960394 -3.9432809
31.485495 -1.9908352 -3.843231
31.43746 -2.0297613 -3.7420411
31.407125 -2.0553443 -3.6425309
31.387199 -2.0717635 -3.5426011
31.359417 -2.092814 -3.4409311
31.338636 -2.1121392 -3.3419311
31.31023 -2.1333454 -3.241071
31.280674 -2.1576276 -3.1412711
31.260733 -2.1737494 -3.041121
31.229273 -2.204459 -2.9430511
31.192043 -2.2506828 -2.8491809
31.747259 1.5800613 -4.2607312
34.571857 3.1290708 -3.101001
34.486362 3.0989971 -3.1476109
29.405865 1.1241257 -3.0789709
29.021235 1.051612 -2.897701
27.394266 -0.34441483 -2.661931
31.223171 5.1979518 -1.385591
30.362709 4.315567 -1.964101
31.248365 5.280139 -1.230111
32.051235 2.347661 -3.6005111
29.08684 2.2494369 -2.346391
28.018522 -4.9554081 -1.655231
27.935982 -5.0230856 -1.552801
27.86216 -5.0865412 -1.452911
27.789263 -5.1468225 -1.350281
27.732214 -5.1890364 -1.248351
27.707386 -5.2071881 -1.142911
27.70714 -5.2064028 -1.042691
27.707657 -5.2025213 -0.94185102
27.679605 -5.2264991 -0.84221101
27.615393 -5.2806139 -0.74210101
27.559029 -5.3324523 -0.64485103
27.531919 -5.3538351 -0.54315102
27.512756 -5.3709893 -0.44307101
27.512913 -5.3684435 -0.34232101
27.502638 -5.3791704 -0.242311
27.493748 -5.383873 -0.141761
27.503155 -5.3726015 -0.041841
27.519396 -5.3624969 0.058369
27.528122 -5.3536582 0.158399
27.528185 -5.3517981 0.25822899
27.529608 -5.3457808 0.358199
27.528051 -5.348567 0.45818901
27.537279 -5.3393111 0.55821902
27.552574 -5.3321619 0.65881902
27.553337 -5.3291073 0.75906903
27.562868 -5.3176947 0.85896897
27.588326 -5.301445 0.960639
27.599072 -5.284729 1.059139
27.624754 -5.2666273 1.160309
32.450481 1.6415725 -4.2831612
26.431152 -1.1190149 -2.416961
24.88135 6.4681349 -3.390471
25.827501 -0.9404633 -1.8850811
34.286278 -3.9918129 4.5180788
22.710844 -1.8399174 1.226999
21.930355 -1.0630755 1.621069
21.924839 -1.069581 1.520679
22.974566 0.32351851 -2.480731
22.930902 0.2826829 -2.1805611
22.905807 0.26055741 -2.0796909
21.898865 -0.7169683 0.125209
22.233023 -0.39044738 -0.37937099
21.050966 1.7436855 -5.2928309
22.721952 1.0259233 -5.5876012
22.652954 1.1560447 -5.687571
22.559834 1.0708456 -4.9854708
22.456993 1.5549023 -6.0891809
21.522184 2.4174173 -6.2975111
22.719433 -1.8310432 1.326939
27.207363 0.24678302 -2.4402709
22.730904 -1.8161798 1.427609
22.734772 -1.8142915 1.5269589
21.843506 1.7441239 -5.292171
22.572065 1.2754111 -5.6866112
22.506718 0.8328898 -3.4849911
21.64459 -0.58997154 0.422259
22.169481 -0.26009941 -0.48041099
22.991062 0.54762173 -4.375411
22.969482 0.5554564 -4.2677011
22.605783 0.53936958 -3.382751
22.363279 0.50970674 -1.383531
22.334784 1.2431884 -4.6867709
21.805267 1.3091969 -4.1915808
22.438841 -1.3275969 2.3241291
22.348354 -1.4268534 1.023779
32.805855 4.1902184 -2.6153309
28.24452 1.8122892 -1.837731
34.078251 5.0311379 -1.686191
30.46859 3.3185043 -2.7226009
31.598539 -1.7165554 -4.3516011
31.530905 -1.7724521 -4.2490411
31.47307 -1.8200758 -4.146111
31.422823 -1.8638316 -4.0473809
31.374006 -1.9036276 -3.9460411
31.355309 -1.9233558 -3.8466811
31.305323 -1.9607407 -3.745321
31.266014 -1.9914784 -3.645561
31.238241 -2.0154212 -3.5442309
31.220499 -2.0266006 -3.4416709
31.191175 -2.0510027 -3.3418009
31.171185 -2.0671036 -3.2417109
31.141785 -2.0915413 -3.141721
31.112347 -2.1158304 -3.0420811
31.089811 -2.1375031 -2.9441609
33.076351 2.6861885 -3.683131
30.966974 2.830332 -2.974431
28.355711 1.2923182 -2.369451
33.429268 2.8227026 -3.521071
33.343952 2.778996 -3.552521
27.314774 -0.39972472 -2.6776309
30.686012 3.5750992 -2.7537911
30.840542 3.7045989 -2.7362411
30.919292 3.7686417 -2.7238009
29.550087 3.7707982 -1.758881
31.329845 2.1514955 -3.194891
31.890434 2.2305145 -3.6323609
27.847204 -4.9194736 -1.654961
27.756165 -4.9944758 -1.551451
27.691534 -5.0503941 -1.451821
27.628927 -5.0994391 -1.346391
27.581903 -5.140296 -1.246821
27.544073 -5.1696262 -1.147881
27.529619 -5.1778431 -1.0424809
27.51161 -5.1923742 -0.94217098
27.483313 -5.2172217 -0.84259099
27.428356 -5.2632685 -0.742401
27.390455 -5.2973795 -0.64372098
27.362566 -5.321322 -0.54390103
27.335123 -5.3438435 -0.44341099
27.324759 -5.3463039 -0.34349099
27.316223 -5.3546977 -0.243211
27.308403 -5.3604388 -0.142281
27.325613 -5.3461275 -0.042470999
27.351862 -5.3259187 0.057509001
27.361046 -5.3156581 0.157579
27.37808 -5.3038282 0.257489
27.378809 -5.29774 0.357559
27.378143 -5.2997198 0.45744899
27.368761 -5.3063173 0.55743903
27.359604 -5.3128014 0.65750903
27.36693 -5.3142576 0.75791901
27.367424 -5.307498 0.85774899
27.394295 -5.2891417 0.95888901
27.605867 -3.4103379 -2.6437311
28.78282 -2.1826873 -3.0545609
28.852541 -2.1108875 -3.0667911
28.922127 -2.0402265 -3.072901
28.991762 -1.9687097 -3.086951
29.061836 -1.8968675 -3.096571
24.339083 -0.16642189 -1.734971
22.742939 -1.8059828 1.626889
21.74029 -0.87158418 0.72008902
20.721718 2.2046978 -5.9966211
21.925049 -1.0699348 1.420599
21.925156 -1.0706773 1.320659
21.923233 -1.0734489 1.220849
22.483042 -0.34322667 -0.77533102
22.446611 -0.3773942 -0.67647099
22.284184 -0.34098506 -0.48017099
22.752676 -1.7966709 1.726509
21.579069 -0.46216917 1.016129
22.059343 0.0018413067 -0.472141
22.55649 1.068491 -4.8861508
22.480673 1.5774522 -6.191031
21.945959 2.0435765 -6.0945711
30.315578 0.21950293 -3.9237211
22.452305 1.9401128 -6.6888809
31.556572 2.2067912 -3.265841
21.868998 1.769191 -5.3921008
22.555315 1.2593672 -5.586381
22.508194 0.83366013 -3.5848711
21.610968 -0.61482692 0.51897901
22.239069 -0.19305849 -0.579611
23.035278 0.60696888 -4.5700312
23.012827 0.58748817 -4.4706712
22.596836 0.53169751 -3.2826409
22.363794 0.50937462 -1.483701
22.319263 1.2283747 -4.5864611
21.84779 1.3561063 -4.2892709
23.36824 3.5218616 -1.091911
22.766981 -1.7809513 1.826619
22.782671 -1.7648368 1.926819
32.647038 4.0701518 -2.644331
29.865385 4.1751928 -1.629831
31.731037 4.1592331 -2.6021509
30.538149 3.4174781 -2.745611
31.431831 -1.6700137 -4.347641
31.379379 -1.7184788 -4.254591
31.333183 -1.7611244 -4.1501708
31.273447 -1.8068743 -4.0483208
31.243353 -1.8287379 -3.9455309
31.215925 -1.8525603 -3.845921
31.177259 -1.8832769 -3.744761
31.146523 -1.9116249 -3.646791
31.098637 -1.9499501 -3.5452011
31.070719 -1.9731009 -3.444201
31.042513 -1.9930483 -3.342411
31.032345 -2.0008688 -3.242651
31.002914 -2.0253913 -3.1424811
30.973452 -2.0496805 -3.0427909
30.933577 -2.08336 -2.943311
31.253351 1.924613 -3.2829311
33.286057 4.0737648 -2.766201
33.947052 3.0647731 -3.315361
27.237875 -0.4723798 -2.6827409
27.160059 -0.55599511 -2.6920111
30.762196 3.6435046 -2.748111
31.828674 4.4873872 -2.383271
31.992287 4.592308 -2.3365309
25.827078 0.10421634 -1.5511709
27.112928 1.3441067 -1.526921
31.812029 2.1695197 -3.647131
31.672602 4.6746855 -2.2441511
27.686232 -4.8772802 -1.654731
27.613895 -4.9359703 -1.550421
27.548403 -4.9938679 -1.452381
27.494698 -5.0377159 -1.348081
27.44054 -5.079555 -1.244561
27.405142 -5.1095223 -1.144471
27.376419 -5.1324892 -1.044691
27.351311 -5.1521111 -0.94335097
27.323322 -5.1769452 -0.84353101
27.277346 -5.2155671 -0.743581
27.239983 -5.2479525 -0.64399099
27.212746 -5.2724466 -0.544891
27.183506 -5.2970619 -0.44478101
27.178131 -5.297966 -0.34327099
27.157703 -5.3134308 -0.24304099
27.139877 -5.3279476 -0.14300101
27.139843 -5.3260169 -0.042980999
27.149395 -5.3129711 0.057218999
27.157089 -5.3087854 0.15675899
27.156416 -5.3100653 0.25666901
27.155802 -5.3103695 0.356989
27.155823 -5.3070812 0.45708901
27.145725 -5.3169518 0.55699903
27.136335 -5.3251829 0.65694898
27.136398 -5.3231392 0.75652897
27.145514 -5.3129215 0.85615897
30.678699 1.9927781 -3.1967809
31.613226 3.3196073 -2.9053011
30.100464 -0.81604081 -3.412431
27.252569 -5.2216487 1.256569
27.287741 -5.1930671 1.357249
27.323826 -5.1614947 1.457239
27.352293 -5.1374531 1.5555789
29.132208 -1.8249831 -3.1024311
29.203165 -1.7549866 -3.094991
22.797436 -1.7489407 2.027019
22.161541 -1.0332713 0.42331901
23.378387 3.122735 -0.69233102
34.349991 -3.8988142 4.520669
23.435514 0.33149433 -2.3898709
21.915073 -1.0823164 1.121099
22.879417 0.042400837 -1.381761
22.404488 -0.41824389 -0.57594103
22.722059 0.08331418 -1.280961
34.034706 5.3469462 -0.94926101
22.740105 0.47471189 -3.7819209
22.126293 0.059032202 -0.56718099
22.331713 0.8560195 -2.9866409
21.978924 2.0766835 -6.1951108
21.634232 2.734102 -6.7960811
21.542406 1.6323872 -4.897861
30.634272 2.791929 -2.9973409
31.841799 5.2562671 -1.556761
22.469034 -1.2974036 2.821239
22.53891 1.2435279 -5.4861112
22.533947 0.85700917 -3.8849311
21.599682 -0.62328339 0.61810899
23.57292 4.735157 -1.792971
23.075089 0.66643715 -4.6769109
22.587652 0.5230782 -3.1829109
22.374296 0.51916766 -1.583501
22.302879 1.2135468 -4.4859209
22.008595 1.5129495 -4.8902311
23.389425 3.5393691 -0.89422101
22.912426 -2.4103544 1.230039
22.597599 -1.1903338 -0.075271003
23.363008 -2.3686209 -0.36637101
30.719669 2.9894733 -2.8863909
31.818302 4.1986971 -2.5684011
31.157778 3.7913184 -2.760771
26.565346 -0.67609739 -2.4231009
31.292143 -1.6039771 -4.3494911
31.222855 -1.6634517 -4.2505212
31.172825 -1.7072711 -4.1514511
31.124573 -1.7481985 -4.0489111
31.095228 -1.772424 -3.947911
31.079891 -1.7798132 -3.843271
31.046091 -1.8123116 -3.747581
30.980316 -1.8651892 -3.6451709
30.952497 -1.8861479 -3.5432911
30.923584 -1.9107904 -3.443511
30.903551 -1.9267783 -3.343591
30.902945 -1.9262691 -3.243551
30.883614 -1.9426882 -3.1435411
30.853807 -1.9669772 -3.0431609
30.824186 -1.9990304 -2.953011
33.197746 4.0387702 -2.8061309
37.156796 2.8591325 -0.99105102
27.473652 -0.27945292 -2.649801
29.456133 2.1674547 -2.610111
29.532089 2.2417152 -2.608521
31.746452 4.4340153 -2.4041109
26.870943 1.174387 -1.581001
27.90197 -4.5132332 -2.152041
27.853964 -4.5576186 -2.0519409
27.800117 -4.6012115 -1.953851
27.718403 -4.6706777 -1.853781
32.925507 -3.8771057 -3.3303609
27.553961 -4.8125091 -1.655061
27.480244 -4.8751097 -1.553481
27.406868 -4.9363947 -1.451281
27.361061 -4.9749036 -1.350051
27.32519 -5.0008612 -1.246351
27.282339 -5.0362024 -1.144711
27.252831 -5.0631785 -1.046111
27.218884 -5.0892496 -0.944121
27.19132 -5.1118345 -0.84376103
27.156162 -5.1412783 -0.74286097
27.119471 -5.1715498 -0.64265102
27.08386 -5.2005553 -0.54194099
27.048414 -5.2292004 -0.440891
27.026451 -5.2508521 -0.343761
27.006382 -5.2691803 -0.24463101
26.988216 -5.2838526 -0.144361
26.980467 -5.2877135 -0.043551002
26.981018 -5.2840509 0.056439001
26.979994 -5.2853441 0.156259
26.969902 -5.2946854 0.25628901
26.960562 -5.3012404 0.356159
26.959784 -5.3026266 0.456269
26.969048 -5.2920761 0.556099
26.960117 -5.2987866 0.65575898
26.959671 -5.2984262 0.75561899
26.976933 -5.2841921 0.85562903
26.995924 -5.264379 0.95455903
27.022095 -5.2423096 1.054799
27.057068 -5.2135587 1.1556391
27.093647 -5.1798654 1.255109
27.137592 -5.1434283 1.356279
27.17198 -5.1174846 1.457359
27.181025 -5.1086245 1.557199
27.181696 -5.104629 1.656319
27.198921 -5.0915194 1.757129
31.68446 3.3921142 -2.8872809
32.382259 5.0880671 -1.818861
22.100178 -1.0946341 0.52546901
30.492851 0.26874581 -4.2318311
22.516502 0.84126186 -3.684911
23.372456 0.26829314 -2.287571
22.987938 -0.046079397 -1.379951
22.922636 0.080811024 -1.481931
22.000633 -0.80781698 0.123059
22.747938 0.10820436 -1.381011
22.748455 0.48207307 -3.8818009
22.198156 0.13527918 -0.67027098
22.279522 0.80495906 -2.8868611
22.105539 2.2031562 -6.5960512
21.575903 2.6753483 -6.6948209
21.466957 1.5584946 -4.7964311
21.398382 2.695112 -6.5986409
21.659645 1.9548275 -5.5960808
21.707119 1.020556 -3.488641
22.452785 1.163059 -4.7859411
22.542021 0.86466026 -3.9851611
21.577478 -0.64605188 0.818169
21.431284 2.5264881 -6.397861
22.522654 1.6249483 -6.3984108
22.578508 0.51478362 -3.0826211
22.380356 0.5248034 -1.683691
22.292082 1.202749 -4.3870211
22.027107 1.5318856 -4.989501
22.051552 1.5551994 -5.089931
24.200697 6.8226848 -3.1020911
30.225769 0.35667455 -3.489121
32.503784 5.3425269 -1.517211
23.277166 -2.6397257 0.132039
31.903557 4.2416677 -2.5359409
31.076031 3.7374301 -2.7808011
26.634586 -0.59115958 -2.436641
26.61729 0.87406468 -1.743091
31.162184 -1.5293701 -4.3507509
31.082754 -1.5969625 -4.251471
31.034445 -1.6399686 -4.1497412
30.985477 -1.6795738 -4.048851
30.954727 -1.7062954 -3.949481
30.938801 -1.7249347 -3.8479409
30.903185 -1.7447407 -3.7478111
30.850973 -1.7904763 -3.645771
30.82177 -1.8136412 -3.544981
30.804049 -1.8280661 -3.444401
30.784178 -1.84416 -3.3442609
30.773939 -1.8520229 -3.2439909
30.754452 -1.8683714 -3.1439109
30.744284 -1.876121 -3.044131
30.73439 -1.8841326 -2.9443109
31.141069 1.1643673 -4.2042012
31.21755 1.2329565 -4.1976008
29.146992 1.8973471 -2.6381209
31.664167 4.3828411 -2.427891
31.579121 4.3385272 -2.4579411
31.397856 3.8086567 -2.789691
27.832794 -4.393414 -2.252841
27.759106 -4.4575415 -2.153311
27.703604 -4.5064096 -2.054661
27.648676 -4.5542669 -1.956111
29.594238 2.9799981 -2.321831
27.474913 -4.7058845 -1.758571
27.394167 -4.7698002 -1.652411
27.339869 -4.8140435 -1.549781
27.275345 -4.8705626 -1.450081
27.230755 -4.9078417 -1.347921
27.203022 -4.9314308 -1.248011
27.165094 -4.9641552 -1.148741
27.130268 -4.992857 -1.046921
27.096977 -5.0146074 -0.94387102
27.077539 -5.0315142 -0.84430099
27.049545 -5.05586 -0.74476099
27.013172 -5.0867319 -0.64447099
26.976839 -5.1174917 -0.54430097
26.940998 -5.1471405 -0.44374099
26.905464 -5.1760964 -0.34314099
26.875687 -5.2030869 -0.244491
26.849533 -5.2238965 -0.144131
26.839804 -5.2317171 -0.044261001
26.838856 -5.2327499 0.055349
26.830856 -5.2372403 0.155729
26.821461 -5.2444034 0.255959
26.810308 -5.2555685 0.35543901
26.802502 -5.2593722 0.455569
26.812218 -5.2499113 0.55531901
26.811943 -5.2492824 0.65501899
26.819572 -5.2425156 0.75467902
26.836105 -5.2289667 0.854949
26.854893 -5.2109571 0.95428902
26.873531 -5.1926146 1.053309
26.900719 -5.1673918 1.152949
26.945543 -5.1280842 1.252929
26.99625 -5.087616 1.3553489
27.014889 -5.0696135 1.454879
27.013651 -5.0716009 1.555509
27.014118 -5.0686445 1.655079
27.030912 -5.0556402 1.755459
31.868328 5.0010862 -1.944751
22.809456 -1.7347989 2.1271989
23.250385 0.013996363 -1.579191
23.156414 -0.076442719 -1.477541
23.026127 -0.2061615 -1.3681411
22.81201 -1.7329533 2.2268691
22.81353 -1.7315741 2.326889
22.888058 -0.14397836 -1.275921
24.527542 -2.9755306 1.912809
21.957541 -0.85147381 0.22015899
22.773827 0.13296008 -1.4807709
22.705166 0.44684482 -3.281471
22.305311 0.26124334 -0.88284099
22.212107 0.74136209 -2.7854409
22.07082 0.80358028 -2.0847411
21.356508 1.4597824 -4.6897511
21.3395 2.63411 -6.499011
31.754507 5.2188964 -1.596071
21.701166 3.1625094 -7.030921
23.398888 3.1399808 -1.087641
22.442533 1.1536543 -4.6861711
22.571409 0.89065337 -4.2845311
21.577139 -0.64582586 0.91804898
23.401354 3.3526011 -0.792611
22.569082 0.50578213 -2.982971
22.392122 0.53600407 -1.783731
22.275139 1.186938 -4.286551
21.881563 1.3883216 -4.3899908
21.510105 1.8004804 -5.1976609
24.146276 6.7688322 -3.0024309
24.216055 -2.8716638 -0.566661
22.813961 -1.7304361 2.4266591
23.260662 -2.6548152 0.232179
31.988615 4.2864203 -2.5062611
30.997627 3.6733093 -2.792861
26.704964 -0.49956822 -2.4528711
30.918961 0.92947346 -4.1957412
31.06031 -1.4313438 -4.3540711
30.971519 -1.5068841 -4.2537212
30.914188 -1.5543169 -4.1507311
30.863544 -1.5977615 -4.0511708
30.831987 -1.6251194 -3.951741
30.821548 -1.629956 -3.848031
30.803595 -1.644487 -3.7471609
30.768333 -1.6762433 -3.647321
30.713205 -1.7212009 -3.545151
30.693457 -1.7376413 -3.444911
30.681925 -1.7470953 -3.3457811
30.664486 -1.7612658 -3.2448809
30.654192 -1.768945 -3.1449511
30.644432 -1.7770767 -3.0450909
21.938061 3.0755494 -7.078701
32.878525 4.1141124 -2.702291
29.219555 1.9810827 -2.647011
31.909298 4.5431213 -2.3628211
28.654039 1.5890909 -2.3704009
28.72917 1.6640797 -2.3708711
27.745443 -4.2874823 -2.352721
27.679047 -4.3479686 -2.2551711
27.617062 -4.4012699 -2.1542611
27.552446 -4.4585881 -2.056191
27.471363 -4.5268168 -1.954901
27.379063 -4.6093855 -1.857971
27.299366 -4.6711092 -1.750461
27.255157 -4.7060685 -1.647011
27.198208 -4.7577014 -1.549991
27.133493 -4.815783 -1.4520611
27.087502 -4.8595953 -1.351501
27.034986 -4.8987904 -1.248781
27.002636 -4.9314799 -1.149801
26.972944 -4.9456716 -1.045091
26.955627 -4.9556632 -0.94452101
26.936943 -4.9734116 -0.84457099
26.917965 -4.9910045 -0.74504101
26.897678 -5.0109091 -0.64660102
26.868851 -5.0363436 -0.547261
26.8344 -5.0631294 -0.44577101
26.807438 -5.0858064 -0.34531099
26.769354 -5.1178942 -0.246271
26.742313 -5.1413846 -0.145891
26.734154 -5.1465321 -0.045361001
26.721397 -5.1544518 0.056469001
26.71118 -5.1614594 0.155509
26.702002 -5.168304 0.25556901
26.699074 -5.173183 0.35497901
26.696791 -5.1753821 0.45459899
26.690702 -5.1778502 0.55431902
26.69771 -5.171988 0.65416902
26.706337 -5.1638422 0.75390899
26.716759 -5.1526561 0.85329902
26.733164 -5.1383724 0.95336902
26.75164 -5.120801 1.0525891
26.776644 -5.0995731 1.153439
26.814962 -5.0617504 1.251269
26.870899 -5.0216789 1.356409
26.87812 -5.0130305 1.4553289
26.872345 -5.0161066 1.554879
26.880037 -5.009686 1.655089
26.890762 -4.9969935 1.754429
26.916454 -4.9753919 1.854929
22.811317 -1.7318077 2.526639
23.526703 2.8559785 -1.176571
22.673113 0.03521657 -1.178441
21.830509 -0.59680939 0.127829
22.935993 -0.29219508 -1.274441
22.806097 -1.7364604 2.6268489
22.802858 -0.22733903 -1.175451
22.739773 -0.2868917 -1.0782011
28.359545 -5.2752895 1.498899
21.893118 -0.91405988 0.52030897
22.790974 0.14826894 -1.5813611
22.696419 0.43908787 -3.181421
22.373949 0.32790208 -0.98319101
22.181644 0.71344519 -2.685231
21.353573 1.258858 -4.089921
21.281801 2.5765512 -6.3974009
30.300993 1.6570722 -3.1994109
21.675724 1.7732003 -5.1944709
23.430941 3.1737313 -1.187711
22.380257 1.0947738 -4.1866512
22.586067 0.90545297 -4.385211
21.614948 -0.60504723 1.2176189
21.593021 -0.62895441 1.117519
22.559446 0.49671006 -2.8830211
22.403711 0.54830098 -1.883441
22.266363 1.1788702 -4.1865511
22.070015 1.5733788 -5.1894512
29.316507 3.0867925 -2.008311
24.079824 6.7336321 -2.8777709
22.685537 0.42664981 -2.981771
28.226192 2.2117195 -1.353931
23.243649 -2.6705558 0.332019
30.918493 3.6127033 -2.805871
26.775583 -0.40844321 -2.4688909
